# 3D point list with one line of data per point:
#   POINT3D_ID, X, Y, Z, R, G, B, ERROR, TRACK[] as (IMAGE_ID, POINT2D_IDX)
# Number of points: 398, mean track length: 3.7293868921775899
86 8.4933886161679144 10.587292701946559 63.614956578936493 102 89 61 0.41750089957022513 5 903 1 1272 3 1149
477 9.2294989781054948 -3.1028053395215807 64.428513444305992 139 121 81 0.27518137163142825 5 1091 3 1321 4 1365
87 9.8058788077328956 12.466212274901173 63.963805784253225 94 90 55 0.092543903013132311 5 947 1 1343 4 1218
809 12.872669780259475 6.5388238828580203 65.619367681462748 27 33 23 0.84084746719378478 1 2916 5 2852 3 2576 4 2983 2 1157
88 3.74278328906182 13.335455679050453 61.847043704269574 96 88 63 0.37804407089486797 5 977 1 1389 4 1260
968 -4.691569895938704 -15.704311673126337 75.966156636586234 110 111 112 0.27528767695169032 1 2964 2 1191
89 9.8700772073024474 14.797347092186431 62.462268164606556 58 56 39 0.54385368982362903 5 1021 1 1425 3 1269 4 1289
90 10.613298425769569 -2.1600146007017917 63.439118586618982 161 124 52 0.2136618436727471 5 1095 1 1508 3 1324
91 10.540584884010892 -2.1312660918320732 63.470436986915949 127 94 43 0.43003452786518631 5 1096 1 1510 3 1325 4 1368
813 3.5480764081575669 15.191522668958504 63.656006745453588 22 26 3 1.622222801441825 5 2872 3 2595 4 3001 2 1176
92 10.680746310094305 -2.1240714134867633 63.467079898721835 93 73 48 0.37480469954883111 5 1097 1 1512 3 1327 2 357
475 6.2235696779487917 -3.7383446851679345 66.756316095374146 187 163 78 0.26767174687730561 1 1498 5 1582 3 1311 4 1359 2 537
972 2.4005220129417291 -2.4053947846269699 64.293245985024583 56 53 49 0.13223960375820332 1 2979 2 1208
93 10.675723699618041 -2.1172898638001443 63.456148631949752 93 73 48 0.44769236618456398 5 1098 1 1511 3 1326 4 1370
94 10.851018618134296 -2.0651675666686971 63.439625199238151 207 167 97 0.079807249069258082 5 1100 1 836
95 8.4615827458677817 -2.008543619385414 65.460894345613127 125 104 83 0.18516329887645683 5 1109 1 1957
96 7.9983300145579497 -1.9643222929165265 65.820317051874113 162 149 106 0.15652196134502558 5 1113 1 1520 4 818
495 8.0318550439280401 0.62799802613738143 65.832469538087054 192 196 194 0.24410441075386577 1 1605 3 1415 4 1448
912 11.327706506468445 14.505560988816633 62.250809905130389 21 24 16 1.076438410405776 3 2421 5 2688 4 2848 2 911
97 8.8796309370645172 -1.9304892232286472 65.066065279113275 165 151 112 0.27761141156304558 5 1115 1 1526 4 1382 2 223
98 8.6408758566250654 -1.9315497825092132 65.278022437686914 165 154 109 0.36698859624647306 5 1118 1 1524 3 1336 4 819
489 8.1424034270685564 -0.057639367497787287 65.633299278314581 130 128 150 0.48284913521448702 1 2002 3 1390 4 1867
99 8.760379860980219 -1.9311714463842951 65.177698836287874 166 153 114 0.25481575641862425 5 1119 1 1525 3 1337 4 1383
100 7.3897698846753679 -1.9043180523687508 66.450995831547189 166 156 112 0.57531025019942605 5 1125 1 1529 3 827
483 11.940454721631006 -1.7444574447359864 64.855616391472466 137 99 33 0.23856964967006644 5 1139 3 1345 4 1389
916 10.677782386764761 12.697100464328267 64.16545488139684 28 25 21 0.79938957709014435 1 2838 4 2891 2 1064
101 7.2706100500531337 -1.8942538926462402 66.499791680781328 171 158 114 0.27154190184026389 5 1126 1 1528 2 374
102 10.71498155508973 -1.3188839094834788 63.462763736990453 130 89 25 0.83959785380195984 5 1149 1 876 3 839 4 1394
493 10.09120930947434 0.43736006600407101 63.947519199690277 105 119 163 0.25521298554646366 1 1599 5 1196 3 1406 4 1444
103 10.110340982232714 -0.63232431662922184 63.908852274333285 166 167 178 0.075487791428458184 5 1161 1 893
104 8.7214188078838468 -0.48702339792328164 65.128772315754603 188 187 167 0.20621251798807644 5 1162 1 1992 3 1367 2 394
503 2.4890293894050473 2.2951413992997902 65.368498253742587 180 174 134 0.23564067826636603 1 1647 3 1457 4 1481
920 12.953291410764642 -3.6653211083966353 66.220208093591438 143 132 87 0.25698095609325966 3 2521 4 2918 2 1094
105 9.5333073404411017 -0.48815244062049079 64.481847543117979 182 186 180 0.025527489467457455 5 1163 1 1986
106 7.6428710697377351 -0.40503531606302018 66.242564237376911 132 137 141 0.33041148599492037 5 1166 1 1993 4 1857 2 244
497 9.3845510780892845 1.0644088889553547 64.657214740309698 149 159 153 0.26800004959217522 5 706 3 1425 4 919 2 162
107 8.7513420872000136 -0.38045075795969491 65.209231905393239 189 195 184 0.4835800490029778 5 1167 1 1995 3 1372 2 399
108 10.380883867567324 -0.15591768135784856 63.676002617582242 183 190 183 0.22235784226697072 5 1172 1 1573 3 1385
491 9.75431683999882 0.069876420950560306 64.20524947753357 142 140 165 0.12560731087986618 1 1587 3 1398 2 143
109 7.9754579925120526 -0.10119583281968958 65.869910134572976 181 129 142 0.26593011934469196 5 1173 1 923 3 1388 4 1430
110 8.0592305937407875 -0.082405942514159738 65.851681135750852 145 119 153 0.1537716367774109 5 1174 1 924 3 878 4 879 2 252
501 4.6175142786022585 2.1906380856418259 62.380388009758271 201 195 143 0.19614876803638459 1 2061 3 1455 4 1478
111 10.16179543335439 -0.036249755671230587 63.937967502692985 183 190 181 0.45198002072609023 5 1177 1 2006 3 1759 2 404
112 8.2702245743884024 -0.026043708136778525 65.685213863993653 112 103 158 0.19065954982815597 5 1178 1 1581 3 882 4 1432 2 405
511 13.318286090647536 4.6844995379676169 65.5672737177849 125 103 73 0.18756171514584219 1 1702 5 1810 3 1506 4 1999
113 8.2702245743884024 -0.026043708136778525 65.685213863993653 112 103 158 0.19065954982815597 5 1179 1 1580 3 883 4 1433 2 406
114 8.7559831398940169 0.17543447309691274 65.324047035542364 150 134 121 0.19752564648323351 5 1181 1 931
505 2.6842930328995926 2.3639555144757964 64.555108888041104 151 133 114 0.14377600591700221 1 1652 3 1462 4 1484
115 8.3602441202285078 0.33262100398565236 65.545752871742309 151 133 115 0.30319968584101309 5 1184 1 934 3 1400 4 887
116 9.4361647289389854 0.32886619989985039 64.571106251273434 194 200 202 0.40019165860789796 5 1185 1 1592 3 1401 4 886 2 411
499 13.020968271111894 2.0125461025010924 66.359690259739651 145 108 28 0.20116184110151636 1 1625 3 1437 4 933
117 8.8963031566299424 0.34379417970314918 65.067959725108423 191 193 171 0.20704534717603851 5 1187 1 1594 3 894 4 888 2 414
118 8.5388746104805069 0.37129674444875099 65.448334807399945 180 186 160 0.0076146627873224342 5 1188 1 937
509 3.4305130126483969 3.6092601993125109 62.346876103799119 145 79 55 0.10196051442828363 1 2084 5 779 3 1486
119 9.9438102151878134 0.43258967636095352 64.102537932092574 148 151 168 0.20237114310317672 5 1193 1 1596 3 1408 4 1439 2 417
120 9.9430430388555529 0.43239265834002699 64.07786922519108 148 151 168 0.043898587024620683 5 1194 1 1597 3 1409 4 1440
455 13.427859326425585 4.744229018511736 65.604232522206701 125 59 35 0.28731994502587327 1 1107 3 1050 4 1029
121 10.091502546232055 0.43855445678233568 63.957139444408242 119 120 151 0.28230974753178495 5 1195 1 1600 3 1407 4 1443 2 419
122 10.44362413908615 0.43966034632707374 63.607413659538985 127 130 149 0.29793826760149894 5 1197 1 1601 3 1412 4 1442 2 421
449 1.905511979824932 3.5467635106224007 67.174304596344015 142 131 101 0.3717711867484576 1 1067 3 1015 4 304
123 10.199366300346489 0.44202571711439842 63.843550345748596 107 109 121 0.28913541860529379 5 1198 1 2023 3 1410 4 1441 2 257
124 8.7890787228172513 0.47069903785446349 65.139260055206222 162 163 165 0.32456429586871588 5 1199 1 1602 4 1881
507 1.7778276448915373 3.4501299981056643 67.55378750828838 137 129 91 0.23585536938076895 1 2071 5 236 3 1478 4 988
125 7.9125261213043743 0.62540945833128081 65.957864806256438 198 205 188 0.049513049627750057 5 1203 1 2027
126 8.0987819412971245 0.67137062365164102 65.801077907133376 158 158 170 0.22640520691065991 5 1204 1 1607 2 260
453 13.475741622122769 4.6928157840715121 65.615972486191112 127 105 71 0.33043685998751282 1 1103 5 1310 3 1047 4 1538 2 293
127 8.0987819412971245 0.67137062365164102 65.801077907133376 158 158 170 0.22640520691065991 5 1205 1 1606 2 261
785 13.329350326094296 10.798884603544273 65.381526315733112 28 35 16 1.2030028695505219 1 2860 5 2802 3 2532 4 2934 2 1107
128 10.042082366574446 0.66475405619270367 63.962208547717111 167 175 175 0.2134414005782313 5 1206 1 956 3 913 2 153
129 7.7235823827549668 0.84092401098999225 66.159776566335665 206 204 184 0.21332679614809485 5 1210 1 2034 3 1420 1 1612 4 913
314 7.6492787606113417 -0.70671218638574529 66.292832158579841 158 162 171 0.59613479061944064 5 2666 1 2772 3 2430 2 998
130 10.085891476587515 0.9189446817928959 63.952449992650202 114 119 141 0.24073650090660564 5 1212 1 1614 3 1423 4 1453 2 426
260 9.9921559132412714 0.82731029652271371 64.050993709173497 187 191 199 0.40564832956543018 5 2395 1 2556 3 2239 4 2328 2 745
789 1.8725323200223323 2.6119141731248838 67.672991238465528 148 131 104 1.2013702039051657 1 2911 3 2545 2 1138
133 10.86477437301852 1.813611379483782 63.562145400873256 147 107 48 1.003402289334361 5 1226 1 991 3 1434 2 268
318 3.6887541399328212 2.3617727841064782 62.044200942831267 37 36 41 0.55201077315691971 5 2674 1 2783 3 2446 4 2827 2 1011
134 10.841209642475219 1.9387605378719155 63.53615544526874 176 140 56 0.87897340238880928 5 1228 1 1626 4 1899
135 9.0491863069171785 2.0174511456494915 63.36584758666136 147 125 81 0.056959647445104386 5 1235 1 1628
312 9.7872807338467496 14.734772482956441 62.467149787464145 58 59 41 0.95265406000869235 5 2656 1 2759 3 2424 4 2804 2 978
793 7.1426575475102903 12.98745865483771 63.012136366235687 95 84 54 0.98475995101020697 1 2903 3 2551 4 2957 2 1131
136 9.8591495795698822 2.1344810108942145 64.045772813993025 41 22 26 0.19147005131847372 5 1240 1 1018
137 2.3835488466893175 2.244248500034185 65.808242474014619 144 134 125 0.23223826018866212 1 1645 3 1448 4 952 2 273
258 9.7200869915623151 0.68837189609861427 64.333109408521779 163 167 166 0.33491147287151379 5 2391 1 2554 3 2238 4 2322 2 743
138 2.8314406848869771 2.2444225890138814 64.617879015975873 97 85 89 0.2128894398386576 5 1244 1 1646 3 1452 4 1477 2 447
139 8.6079995072553164 2.2354940451126084 63.745020747768265 121 98 87 1.6031910717212772 5 1247 1 1641 3 1451 4 951 2 274
268 6.3144264060034265 6.4613840992408367 63.061981386101579 28 29 21 1.2066570758951656 5 2437 1 2585 3 2259 3 2334 1 2724 4 2388 2 884
797 11.139614362324851 14.973020906975451 63.160879028180894 16 26 4 0.84079616612879671 1 2907 3 2556 4 2960 5 2827 2 1135
140 3.5730488966205041 4.9986248314780992 62.029244115648041 127 112 83 0.50406728285419689 5 1336 1 1732 3 1537 4 1056 2 488
141 3.5306786612007426 5.4703531530126916 62.032996240956912 155 82 60 0.97952460873377334 5 1343 1 1755 3 470 4 414
262 5.4939196608866023 2.2651534239736173 62.764991520049691 29 30 44 0.41601950533016085 5 2406 1 2062 3 2094 4 2342
142 3.6164750360664377 5.5598372697523262 61.978124159256424 96 81 61 0.79098582148610852 5 1345 1 2448
143 2.7504695700613713 6.2948927215693047 64.415617414051098 147 131 106 0.34701457223372439 5 1352 1 2191 3 1935 4 2055
256 9.375617742751297 0.57025555625459645 64.669036127303258 181 182 186 0.28199123950251653 5 2388 1 2631 3 2236 2 856
865 2.3987519108683455 7.0903829359493944 65.560890840755221 138 131 79 0.41247529392809118 1 1784 3 1946 4 1611
144 2.6161193357204202 14.37076383840251 64.533935611322221 56 62 56 0.20101985277232792 5 1487 1 1879 3 1655 4 1710
145 8.8076434841048581 14.307015936348085 63.536038067176662 87 73 52 0.4240399258573182 5 1489 1 1870 3 1648 4 1707
266 6.4294371529586396 3.5648696686827051 63.140142180848777 26 33 26 0.58241753678030106 5 2419 1 2640
146 1.3704278684683686 14.435019000866136 64.09059039575655 41 24 38 1.2065571485872943 5 1495 1 2293 3 2013 4 1716 2 821
147 10.592929396301145 -2.7782777682001414 63.36561657762568 36 29 11 0.097988626794992664 5 1596 1 1504
276 9.2340140197084786 -0.53730699957052785 64.632460924934264 154 134 107 0.31386406056276034 5 2505 1 2626 2 846
869 10.879220570681465 -3.6372259149654114 64.477211994715219 125 142 119 0.1840562896182662 3 1709 4 1806 2 538 1 1947
148 10.543312336539854 -2.676468285358006 63.314078279582553 163 121 58 0.34810769777505141 5 1597 1 1950 2 543
149 10.92228149147061 -2.1282158401084219 63.559998908259907 135 102 75 0.20651843701711375 5 1599 1 1513 3 1719 4 1814
270 5.2708194392661953 7.9773276873619201 62.634584791700064 103 97 65 0.50313089041027736 5 2440 1 2661 3 2262 4 2582
150 9.3352497028811214 -2.0631145181150026 64.570331429603883 120 102 80 0.89905639981701901 5 1603 1 1515 3 1722
151 9.7570345046948912 -1.9913236317673988 64.282780812601857 169 155 117 0.15196810720863208 5 1606 1 1952 4 1377 2 364
264 8.8867047888862842 3.3075922220388581 63.915517841905327 27 32 31 0.4334558213258462 5 2412 1 2565 2 763
873 9.4822723957238537 -0.86024973941125182 64.375150856486741 187 193 176 0.19448408063488962 3 1741 4 1841 2 565
152 10.257979871314781 -1.9785617288426729 63.797389235361216 163 150 108 0.19745142460263307 5 1607 1 1953 4 1823 2 547
153 10.121615506165092 -1.9764440255878839 63.905677307679298 164 150 113 0.26934583936682888 5 1613 1 1961 4 1379 2 546
274 12.667547471517338 -2.0600416912318424 65.720950073984994 145 88 35 0.16227264047462575 5 2502 1 2541 3 2300 4 2662 2 840
154 10.719980392152364 -1.9475291111148678 63.473246125401566 119 76 26 0.35846318494570628 5 1614 1 1518 3 1332 4 1380
155 9.2579876768166507 -1.9583802025304857 64.716596026244673 161 146 114 0.12841019213491303 5 1617 1 1963 2 366
284 8.4757765988859859 6.4752470518399372 63.852254001175609 29 31 22 1.1635285157529822 5 2544 1 2654 3 2400 2 959
877 13.054194182735015 2.0576245833910871 66.119091314572131 49 56 56 1.7655565566703548 3 1793 5 2150 4 1902 2 751
156 8.1433841303592622 -1.946164447662786 65.764075316607673 160 147 112 0.17866300422781711 5 1619 1 1964 3 1729 4 1828
157 7.6282735314205388 -1.9216328128184985 66.239357182355377 170 158 116 0.085482423222530676 5 1624 1 1966 4 1829
278 9.7520066800713519 -0.06417847630103396 64.292566651633081 186 192 188 0.34301820465923727 5 2507 1 2550 3 2306 4 2669 2 851
158 10.534455560716017 -0.93198734138254191 63.513818500193139 140 104 62 0.70938936306027567 5 1634 1 2352 3 1351 4 1839 2 563
159 9.3680476863915505 -0.86153089132301797 64.699334445020156 186 191 168 0.28104035770277219 5 1635 1 1975 3 1739 4 1405 2 388
272 10.542384351593153 12.776719237988587 64.202156032685181 26 25 23 0.37323061284408987 5 2459 1 2602 4 2608
160 7.621925059337431 -0.81583039439403315 66.24285666553034 203 207 184 0.25948359398785814 5 1637 1 2353 3 1743 4 1843 2 566
161 7.6219364064080679 -0.81765556877397161 66.249343287766422 203 207 184 0.19256451494400026 5 1638 1 2354 3 1744 4 1844
162 7.6844813770033911 -0.73196411448133358 66.235562027792042 158 158 176 0.38346410897314492 5 1644 1 1978 3 1745 4 1846 2 390
163 7.4928557431023215 -0.62023261987221656 66.302916104172496 158 136 115 0.53199574388236126 5 1646 1 1983 3 1747 2 572
292 1.0971304430353963 6.7491622083527218 26.700637797750556 132 136 135 0.3467871109008363 5 2595 1 2523
821 18.899229886079066 -16.5253840220293 74.070038026062221 107 107 106 1.5478338941670668 1 2969 3 2616 4 3029 2 1196
164 7.7692459181950957 -0.60743105493556204 66.087014484888556 190 191 183 0.13856029014331428 5 1647 1 2362 3 2059 4 2292 2 573
165 8.1196657516861848 -0.57712380198178193 65.742057919367383 156 149 190 0.69782079002830466 5 1648 1 1985 3 1748 4 1417 2 391
166 8.191068691412811 -0.48190285264284977 65.722862845390523 193 196 192 0.25679957122000241 5 1656 1 1991 3 1750 4 1856
167 8.3375853754263201 -0.4260466268371963 65.677819222371127 191 194 185 0.58128414912108972 5 1657 1 2366 3 1751 4 2295
825 8.5813587652357004 10.094751585994814 63.763561147651458 40 35 16 0.52696121367618842 5 2912 3 2626 4 3034
168 9.7677289978129238 -0.38207116940851893 64.208495469395771 107 108 128 0.44014655361609084 5 1658 1 1994 4 2297
169 8.5936637946774947 -0.35657017619360248 65.391311937898706 191 196 197 0.43069669069663785 5 1660 1 1996 3 1752 4 1858
290 8.5136339300112365 14.328172336870328 63.506251587618166 27 30 15 1.4241977433412061 5 2589 1 2756 3 2361 4 2801 2 1030
170 7.6375695437641618 -0.2652238139153581 66.277684330269224 137 135 144 0.25820471496111197 5 1662 1 2368 4 2299 2 582
171 7.6375695437641618 -0.2652238139153581 66.277684330269224 137 135 144 0.25820471496111197 5 1663 1 2369 4 2300 2 583
300 10.444274640428898 1.0824011593419516 63.589158289777032 179 187 176 0.35100754342216434 5 2612 1 2702 3 2384 4 2675 2 929
829 18.536899630783864 -11.568879353153427 82.016035950824232 255 255 255 1.0574245356323326 5 2921 3 2637 4 3044 2 1211 1 2982
172 8.4367350030083763 -0.074943048207151128 65.526847304189161 193 198 190 0.40716248164931346 5 1669 1 2000 3 1756 2 590
173 9.5916471530116709 -0.045925780166588034 64.440079075294094 186 192 183 0.78639746105930519 5 1670 1 2003 3 1758 4 1868 2 402
294 9.6406024101584364 -0.56945174560640666 64.355978782932652 180 180 189 0.25404062361203628 5 2602 1 2696 3 2376 4 2766 2 921
174 9.889478846873029 -0.038230877099391922 64.157751754687936 185 189 180 0.10307617786191964 5 1673 1 2005
175 9.889478846873029 -0.038230877099391922 64.157751754687936 185 189 180 0.10307617786191964 5 1674 1 2004
288 10.597187912170597 12.782434300877778 64.31122218474637 19 31 12 0.84186782211468747 5 2583 1 2674 3 2411 4 2793
769 13.208066133173153 -2.2820522167812247 66.093176529608115 58 61 42 1.4162967796462491 1 2847 5 2700 3 2503 2 1036
176 8.6969283613746349 -0.006737789383005119 65.281040229937517 189 195 187 1.1017192470974411 5 1675 1 2373 3 1395 4 1871 2 731
177 8.2387446350500149 0.14588974295050799 65.704834362933056 145 131 120 0.15308155053588482 5 1678 1 2013
298 9.4423040175694126 0.24502285359480191 64.662783491130355 191 195 196 0.19886635942189601 5 2609 1 2778 3 2382 4 2768 2 926
178 8.6521507460937901 0.27135266990231871 65.384556157994552 157 129 117 0.5413790731275907 5 1682 1 2019 3 1765 4 1875 2 410
179 9.4415097876871048 0.43625460511919228 64.552514344474204 153 156 161 0.1426394679485781 5 1684 1 2020 3 1769 4 1878 2 415
308 10.621054832314295 7.5925358862634971 64.351769472580159 31 36 29 1.1042201486528416 5 2636 1 2730 3 2404 4 2709 2 1021
773 12.749061149937052 4.5830697482151876 65.446114917510613 117 102 72 0.88181430904353386 5 2780 3 2510 2 1080
180 9.4415097876871048 0.43625460511919228 64.552514344474204 153 156 161 0.1426394679485781 5 1685 1 2021 3 1768 4 1879 2 416
181 7.7065165442699533 0.50293360112710195 66.155087161629481 205 203 186 0.27444355180597418 5 1688 1 2379 3 1771 4 1883 2 603
302 5.5380056269878422 3.5567287647990478 62.839687801235996 33 32 37 1.5784799052926521 5 2622 1 2641 3 2247 4 2777
182 8.4866880078874356 0.6033221523339245 65.460855003489243 123 117 127 0.23696728524216906 5 1690 1 2025 3 1773
183 10.409577581338176 0.66255447806644596 63.615711012726742 116 115 131 0.33767130858206762 5 1691 1 2384 3 2078 4 2321 2 606
296 9.7777983753981772 -0.30463096223963637 64.304475725657682 108 111 120 0.43933236073656418 5 2604 1 2699 3 2379 4 2820 2 923
777 7.2699914718126282 13.103056386468742 63.109479991008563 95 84 57 0.18930880549792328 5 2804 4 2939 2 1112
184 10.502984631192799 0.6615787383784496 63.547350608932554 174 185 176 0.23817435876883947 5 1692 1 2385 3 1776 4 1884
185 10.36131963396133 0.76276459428098886 63.6847205928647 149 155 153 0.169428406270244 5 1694 1 2032 3 1777
306 3.4532707278612911 5.6264055569763123 62.217427273647424 147 131 103 0.79685783932071486 5 2630 1 2790 3 2451 4 2783 2 1019
186 10.361243388684551 0.76479259955558965 63.680793873381482 149 155 153 0.24596447697522539 5 1695 1 2031 3 1778 2 425
187 10.50595792333719 0.76901539769141858 63.548799428549863 176 184 171 0.23658680558572637 5 1696 1 2033 3 2082 4 1887 2 610
316 10.055592649303515 -0.29978494481039752 63.951047356809028 137 150 158 0.71188910083598411 5 2669 1 2777 3 2435 4 2821 2 1003
781 1.7499892645294732 4.3353577344668439 68.126680479069989 142 124 94 0.64879979697588375 1 2897 3 2526 4 2928 2 1101 2 1126
188 9.4552700123725337 1.1287644120263058 64.4963837773047 194 198 200 0.27704234416644741 5 1700 1 2390 2 611
189 9.4043217741439733 1.2208843568986694 64.595380414346394 139 141 152 0.32643504021797043 5 1701 1 2391 3 1782 4 1888 2 427
310 10.370348964225053 8.9142208779630376 64.230729406758456 32 34 22 1.4730913640738696 5 2639 1 2470 4 2101
190 9.3443436137263216 1.3419959631750973 64.663138014122083 196 201 169 0.2478920251513419 5 1702 1 2392 3 1786 4 1891 2 615
191 9.473377238023156 1.3512689379901055 64.553635027082848 191 195 181 0.18895000475866261 5 1704 1 2393 3 1787 4 2333 2 616
304 13.070904195386893 5.3643449195692918 65.396944211768243 121 68 26 0.33423333006521777 5 2628 1 2716 3 2396 4 2781 2 951
849 2.357305899977542 11.607843409631899 66.02007817264716 113 102 81 0.64691202028649852 3 1165 5 379 4 1193
192 10.492453971178074 1.3654068492407332 63.55412843295673 178 185 176 0.20085078874761547 5 1705 1 2040 3 1790 4 1462 2 431
193 9.4180985894559139 2.0352702436235051 64.515511111584814 146 126 89 0.22729265283557143 5 1719 1 2050 3 1800 2 440
378 11.007715083492569 -1.6651555214061573 63.677583847328833 184 134 40 0.92737236141241342 5 592 3 127 4 99
194 8.4437954334664695 2.244408142748505 63.812078945244224 31 26 51 0.6797951958079137 5 1728 1 2058 3 1450 4 1476 2 627
195 8.8467715205782298 2.2434158068006131 63.885605943839877 29 28 46 0.71820808468479436 5 1729 1 2057 3 1449 4 1475 2 446
324 11.133291938314374 8.3778469022278159 64.617033628771125 27 31 14 0.97562974820350845 5 2729 1 2858 3 2488 2 1054
853 13.652031917831685 -1.7193618822988932 67.410290606316522 85 57 28 0.51099193385014674 1 1544 4 1393 2 230
196 7.2136987148859157 2.2416537646974541 63.218111692911393 36 27 72 0.87615866806027576 5 1731 1 2060 3 1811 4 1917 2 628
197 13.330238391751967 3.2689736772808273 65.576107762990176 125 104 67 0.10986752443065792 5 1753 1 2066
382 9.4357547941210012 -0.43351711712874019 64.615070680891449 186 190 189 0.45495658062722677 5 91 3 173 4 129 2 23
198 13.276524186452562 3.6264466523977092 65.58725866722537 124 105 71 0.09429602754341726 5 1763 1 1671 3 1834 4 1951
199 2.4683003697152341 3.7212996114617276 65.372381525252948 152 147 138 0.62832302492091929 5 1772 1 2571 3 2108 4 1963 2 771
376 11.189158254483177 -2.0730582176962495 63.925104934909513 169 150 91 0.38766009173113403 5 566 3 84 4 805 2 118 1 81
857 10.165546769904783 0.74459911933527345 63.906352527643676 138 155 144 0.33282217044041151 5 1209 4 1452 2 264
200 5.5448954873686738 3.6865208914846748 62.637272242099165 106 100 63 0.33176137238669784 5 1780 1 2087 4 1970
201 4.4396627619006956 5.8250301646771021 62.247990811791915 101 99 52 0.045869618759373135 5 1856 1 2183
322 7.6873955961890417 6.5351770016859607 63.403478364457214 28 31 27 1.2694238255676993 5 2719 1 2792 4 2873 1 2826
202 8.9431489597773837 6.2522274377532154 64.058904821070399 112 97 69 0.35824789941077606 5 1865 1 2453
203 4.1552738424528872 6.3266183029102603 62.094758211162279 105 93 69 0.7018055898582477 5 1872 1 2196 3 1938 2 501
332 10.374481606384851 0.13354668777164286 63.647307388437696 184 186 198 0.38426196709573462 5 2772 1 2849 3 2504 4 2899 2 1073
861 3.3943759667185529 3.8356833610593979 62.524323465669767 156 136 97 0.36676899046215766 1 2096 5 1291 4 1521
204 3.1054987963775433 14.461646478447985 63.682936196577629 33 23 42 0.36609841023452566 5 2017 1 2292 3 2200 4 2480
205 2.1701188001535145 14.518174736717029 63.817709970761996 96 87 66 0.61672897239486724 5 2018 1 2299 3 2019 4 2212
326 7.3295629479796887 9.0785852557824001 63.327809961860005 105 91 65 0.3349072617708363 5 2733 1 2831
206 3.0288550032648427 14.525308053016168 63.70402238516899 98 80 56 1.9511957336653627 5 2019 1 2300 4 690
207 9.7638738358861961 14.633964165975193 62.485421350719335 56 55 37 0.64198558918946247 5 2029 1 2291 3 2021 4 2215
208 10.992471592641762 15.604186595821774 62.261184445341378 87 76 50 0.11484369125017302 5 2041 1 2308
209 11.068039332446267 15.839441094553154 62.194083355601244 92 50 22 0.90356854216824212 5 2050 1 1909 4 1321
330 7.3439949809378389 13.166214296059438 63.028792761357494 94 83 63 0.3567925883931472 5 2756 1 2839
210 11.068039332446267 15.839441094553154 62.194083355601244 92 50 22 0.90356854216824212 5 2051 1 1910 4 1322
211 6.7826929631854451 -3.8856815764691768 66.289053163658693 75 67 70 0.84602631813928342 5 2081 1 1944 2 712
549 10.792938604690551 -1.4517228672966367 63.470265279772597 135 98 18 0.83593591533846423 5 1628 3 1733 4 1832
340 3.9469088852654473 2.6954575796813738 62.202928487749027 39 41 38 0.70923515425383221 5 2816 1 2895 3 2547 4 2951 2 1122
933 13.668619394596259 8.2658640141508499 65.579666681525183 107 90 74 2.4793469019410876 3 2337 4 2787 1 2465 5 2439 2 804
212 12.385854163442506 -2.0195149055019477 65.376378976139563 144 94 31 0.36971460765105119 5 2093 1 1962 3 1725 4 1824 2 550
213 11.958838356130915 -1.2798965085067724 64.785719865130261 180 144 92 0.50372400577753562 5 2098 1 1549 4 2285 2 560
334 10.211877060938461 -0.70455383813117212 63.668748493043594 183 185 187 0.6845509622992505 5 2791 1 2872 3 2524 4 2921 2 1096
214 10.391274429525117 -0.94503245738497521 63.682177581307783 145 113 72 0.62192779221453964 5 2100 1 1974 3 2053 4 1838 2 722
215 9.6110915486567965 -0.76192410702010005 64.379532779831493 122 123 153 0.24746464346908673 5 2102 1 2357 3 2055 4 2287 2 568
328 3.7992158258353697 10.236224963648713 61.778705777498452 29 31 22 0.68539681918791906 5 2742 1 2861 4 2883
937 13.032565434903029 -2.0841600968323708 66.257526419438435 158 121 68 0.28384512763073738 1 93 5 1105 2 120
216 9.4368657434302925 -0.76401231346401399 64.694783615538185 142 141 137 0.21604292273691184 5 2103 1 2355 3 2054 4 2286 2 567
217 7.959542034807594 -0.72010789803085617 65.95242909722225 193 199 185 0.10847243505841656 5 2104 1 2358 3 2056 4 2288 2 569
338 3.1714926630004809 2.4129958819607067 62.532708768397526 169 153 117 1.3305451439538278 5 2814 1 2913 3 2561 4 2967 2 1139
218 8.4937200200212697 -0.6685795270686653 65.404699327929293 152 130 111 0.2922506972816919 5 2106 1 2360 4 2289
219 9.3541483662722289 -0.65384569989916297 64.630031870201947 190 195 188 1.2835550017325814 5 2108 1 1980 4 1410 3 1358 2 571
557 10.15739308739688 0.59871588977188972 63.839094290120812 153 162 135 0.34078346367133844 1 2026 3 1774 2 422
348 11.273855786909897 12.262955876337051 64.101894391184473 25 29 14 0.84106902341013456 5 2845 1 2927 3 2567 4 2976 2 1148
941 14.081584748036512 -1.5637177465665422 67.773122769713268 115 89 32 0.47264842384700662 1 126 5 1631 2 384
220 7.5972092429647047 -0.63075597437478914 66.281918133353528 206 203 197 0.24909691045801272 5 2109 1 2546
221 8.3854433160386286 -0.60159849889342754 65.536926059062978 197 199 188 0.2227474500797037 5 2110 1 2363 3 2060 4 2293 2 574
342 10.492294349307096 8.2797579076807324 64.475687807750347 109 95 68 0.48186982012443036 5 2823 1 2880 3 2528 4 2930 2 1103
222 7.8900129260144771 -0.5818804774907802 65.929297398371162 187 195 184 0.15847013595581674 5 2111 1 2364 3 2061 4 1852 2 575
223 9.277538276042911 -0.56755671312055067 64.724580822554856 155 136 106 0.59161576887939704 5 2112 1 2365 3 2062 4 2294 2 726
545 12.855826918005734 -2.0630200781057453 66.006116232101675 123 88 46 0.45159304427565294 1 1954 5 1605 3 1723 4 1820 2 361
336 11.537015443962723 3.5894289260398398 64.913281562809303 117 102 81 1.1035882245403157 5 2796 1 2877 3 2509 1 2851 4 2926 2 1100
881 13.631231556116566 13.201344636577542 65.450681043211247 19 20 14 1.1486870761876442 1 1852 3 1205 4 2180 2 512
224 10.030510826635146 -0.50241222543153885 64.002933939056334 178 187 182 0.26068053730612423 5 2113 1 2547 3 2229 4 2542 2 727
225 8.0481713055080508 -0.20627147359071085 65.884544233983746 200 199 192 0.27664535172167892 5 2116 1 2370 3 2065 4 2301 2 586
282 9.7861935712024373 0.95403237022321663 64.313228046220729 180 185 184 0.61984043262041888 5 2515 1 2634 3 2313 4 2674
226 10.511723778828221 -0.058774527641947925 63.56327410209407 185 194 189 0.32862253176065548 5 2118 1 2372 3 2068 4 1863
227 9.9608434467435298 0.053753618437142506 64.11640269897967 160 163 173 0.38895189772409317 5 2122 1 2374 3 2069 4 2307 2 592
356 4.8453658581033645 8.757560622589196 62.398008839371556 101 89 67 1.3490257518949584 5 2861 1 2924 3 2587 4 2993 2 1146
885 9.5201485283795346 -0.65310974746941952 64.562988177257523 182 191 182 0.56721041608809297 5 2107 4 2290 2 570
228 8.6565841712337743 0.17193666921437678 65.276166444127099 194 200 190 0.2884798423703675 5 2126 1 2015 3 1763 4 1874 2 596
229 8.7631331057843056 0.24027566671188061 65.222467773209758 152 138 112 1.2021601131302768 5 2127 1 2376 2 733
286 6.5010246296516456 9.1605375253075607 62.909674318396185 107 92 61 0.21868076498518793 5 2569 1 2664 3 2342 4 2723
230 9.6536199427578087 0.55515615330173917 64.379932910033418 192 195 197 0.39444363783327235 5 2129 1 2380 3 2071 4 2318 2 604
231 7.8654284953328162 0.69923626877986578 65.970451880523342 204 200 201 0.16081274457846928 5 2134 1 2386 3 2079 4 2324
280 7.7617449785804853 0.74303118465276774 66.13465476612069 201 202 193 0.40430666565594764 5 2511 1 2632 3 2310 4 2672 2 928
889 13.453811317939419 3.5804168608568006 65.482266094218886 126 58 24 0.42656349635428142 5 2167 4 2353 2 642
232 8.2294519571709941 0.7697802774561171 65.654300414808063 197 200 187 0.19197248914717396 5 2136 1 2388 3 2081 4 1886 2 609
233 8.159563382142883 0.8894953434580517 65.778441710508446 150 129 115 0.6459616111458425 5 2138 1 2389 2 747
354 6.9219295285797156 6.6860806288671597 63.178842594036055 110 94 69 1.0082742706634158 5 2857 1 2942 3 2581 4 2986 2 1162
234 10.038377243181024 1.3580102506340743 63.924608479999307 185 190 184 0.57667124954275795 5 2141 1 2394 3 1789 2 617
235 3.3256437979419662 3.1061190027684682 62.641921131199545 156 82 57 1.4592703582984841 5 2157 1 2709 3 2316 4 2564 2 936
364 9.6959523927269782 13.600817676769404 63.324253070674601 28 29 13 0.51835975258694611 5 2871 1 2952 3 2594 4 3000 2 1174
236 3.3218947145088049 3.0958955363297336 62.651449637964291 156 82 57 1.4572610387520204 5 2158 1 2710 4 2565
237 13.011446428872171 3.7095815775065999 65.423891516312096 120 72 36 0.92185818414220866 5 2168 1 2077
358 6.9557986784224406 8.691362886859805 63.143501123532474 105 93 68 0.75168872244596208 5 2863 1 2946 3 2586 4 2992 2 1168
238 2.3189631640445327 3.7551185269700351 65.811515837188082 136 119 92 0.63193839617504777 5 2169 1 2711 3 2319 4 2566
239 12.917098064713999 4.080776311939406 65.430772128772801 32 36 36 0.35640406954108028 5 2177 1 2419 3 1855 4 2364
352 4.8530697763249471 6.598418105434197 62.442455648773986 105 91 64 1.0064111131081168 5 2855 1 2919 3 2579 4 2988 2 1160
833 7.2091832614569125 -1.8496129166311037 66.591830156337295 139 124 105 0.22751797944320704 1 119 5 64 4 91
240 12.765727240536972 4.196743099722009 65.260039187569461 31 32 36 0.71715834021805447 5 2178 1 2098 3 2112
241 13.283780508251503 4.5336409787221443 65.528619372139914 118 104 78 0.32646848357142433 5 2185 1 2111 3 2114 4 1990 2 654
362 7.0053617383399844 12.887898101380374 63.139822026600861 98 83 62 0.97824688370914958 5 2869 1 2950 3 2592 4 2998 2 1172
242 12.994566903884873 4.5612318619922227 65.4028250811308 120 64 41 0.80771082622233659 5 2186 1 2114
243 6.4275305540207439 6.4832331007552444 62.936042251867399 114 99 78 0.19181035685859785 5 2218 1 2457 3 2139
372 -8.7226474870494499 -4.9143056201604303 72.499490165114381 80 82 69 2.2595184859053923 1 798 5 41 3 26
837 2.9115282728886345 14.373965207405986 64.400484319666276 61 55 25 0.19510914628163878 1 1406 5 440 4 679
244 3.8440377562513062 10.485454803947652 61.859633022423012 100 87 55 0.36141910447272174 5 2268 3 2268 2 685
245 12.267446184896194 12.821015862068929 64.325790984462955 97 92 54 1.7494958021968976 5 2290 1 2490 3 1988
366 4.1189542200789306 4.688419859906781 62.305644758530413 30 32 27 0.69875540323303686 5 2889 1 2960 3 2604 4 3014 2 1185
246 2.9356471802354451 14.357590412682192 64.521626399258167 59 55 28 0.38307163550961765 5 2312 1 2608 3 2279 4 2630 2 910
247 11.094178948621302 15.526194624382875 62.236212857498764 96 47 15 0.36533203172034079 5 2339 1 2614 2 703
360 9.1646726980702837 12.544877862247771 63.435550260408561 98 84 58 0.91882444893578208 5 2867 1 2949 3 2591 4 2996 2 1171
841 8.8158991300219096 -1.8902897374709371 65.091900413448172 142 127 98 0.14349041591422837 3 110 4 821
248 11.487612820176441 -1.4630908653824202 64.267605731130146 158 145 103 0.64700351110289422 5 2369 1 2350 3 2224 4 2532 2 721
249 10.343876793299794 -0.62673347211304609 63.789197567150069 150 149 160 0.51500458833952867 5 2373 1 2545 3 2228 4 2539 2 724
370 6.2711140498256084 11.976250129103679 63.025762200361136 98 88 63 0.39952308915820084 5 2908 1 2975 4 3032
250 10.216355866245252 -0.50535188799044406 63.875949149247546 183 191 187 0.30596220816111391 5 2375 1 2627 3 2305 4 2666 2 847
251 11.515133285392551 -0.33472402646909977 64.263356206665947 155 136 96 0.64526781746997641 5 2377 1 2367 3 2230 4 2298
380 8.0384696961333137 -0.60131488821857271 65.812404697848478 186 198 188 0.18740505703578444 1 895 3 152 2 15
845 6.550801716350044 2.1418227807853554 67.156480483382992 144 122 85 0.78204384988664088 1 1008 3 954 4 940
252 10.273787737537415 -0.086563148603698861 63.848989102358573 181 188 183 0.41092461885508352 5 2380 1 2549 3 2231 4 2545 2 730
253 10.046775941277634 -0.063539293293669474 63.955053467300871 182 185 187 0.13647524188153021 5 2381 1 2551 3 2232 4 2546
374 11.040305002462999 -2.1128353152406514 63.589089111865277 144 100 59 0.4252993024406922 1 834 3 81 4 49
254 9.5409006756731944 0.062097235702985185 64.528365392011523 147 149 162 0.14740049341980921 5 2383 1 2375 3 2233 2 732
255 9.9838549071684657 0.54812455494140055 64.025782001557616 187 192 195 0.2446681490560246 5 2387 1 2552 3 2235 4 2549 2 739
368 9.4804696626178711 4.4139768272438946 63.835302704311886 112 98 72 1.4228627341677211 5 2899 1 2967 3 2611 4 3023 2 1194
688 5.7103273494742233 -3.758995278048411 67.355272789806563 189 138 69 0.27558310264628394 1 2535 5 2357 3 2219 4 2522 2 836
257 9.7200869915623151 0.68837189609861427 64.333109408521779 163 167 166 0.33491147287151379 5 2390 1 2553 3 2237 4 2323 2 742
259 9.6256388843225764 0.8277082091668555 64.309781458845023 195 194 198 0.48850166336999762 5 2394 1 2555 4 2550 2 744
692 3.3208187178413358 4.281891979189413 62.776584421855489 146 83 39 0.24856146950700242 1 2647 3 2251 4 2369 2 782
261 10.752724230400565 1.8438000223603033 63.405172745227169 130 96 37 0.64903328298780882 5 2403 1 2395 3 2241 4 2557 2 749
263 13.123441580920467 2.9424111792785927 65.398657993744422 34 34 38 0.87829235354031998 5 2407 1 2564 3 2242 2 866
696 8.5466093837547454 10.727054970659575 63.928345856696211 16 17 12 1.5500750191924901 1 2668 3 2267 4 2419 5 1940 2 969
265 8.8815157317790163 3.3076791517798587 63.905655624396246 27 32 31 0.542143586802735 5 2413 1 2566 3 2244 2 764
267 8.5111100619019755 6.4414251022003937 63.841098435791494 29 32 36 0.76472917838438759 5 2434 1 2584 3 2136
700 2.7544137205401067 14.168850939275734 65.018166414908222 132 123 105 0.99418344180376472 1 2682 5 2002 3 2278 4 2629 2 907
269 6.3147170572299514 6.4537693150443465 63.029228180902201 28 29 21 1.164703304313792 5 2438 1 2586 3 2258 4 2389 2 885
271 10.542384351593153 12.776719237988587 64.202156032685181 26 25 23 0.37323061284408987 5 2458 1 2601 4 2607
640 10.96519498851027 2.0275587727573012 63.505307527064083 164 116 31 0.10577089506351395 5 2151 3 2090 4 1908
273 6.2243007224516562 14.530688596784378 63.186787438134559 66 60 25 0.35864844719675687 5 2471 1 2505
275 10.464268767539986 -0.79391543278840038 63.551191397824958 187 186 183 0.30597717417221754 5 2504 1 2625 3 2303 4 2665 2 920
644 5.389948686751219 2.371467049891443 62.697116025886878 117 104 69 0.33658305241839676 5 1737 3 2096 2 631
277 9.399033707464703 -0.11533271450123758 64.626186360648887 190 192 190 0.26710517461587846 5 2506 1 2700 3 2380 4 2668 2 925
279 8.7009799527204859 0.52447182553612171 65.342881408714575 140 146 145 0.43156663163465603 5 2509 1 2630 3 2308 2 855
648 13.36957720223212 3.3886677630869917 65.601962031651709 120 63 20 0.23682013229408166 1 2408 5 2161 3 2102 2 637
281 9.3870195384507173 0.8512062011737902 64.691187367314882 189 190 182 0.35861796155760517 5 2512 1 2633 3 2312 4 2673 2 860
283 2.3819248038497145 5.2532931310357522 65.639847796938881 87 105 89 0.78954629381670582 1 2788 3 2323 4 2570 2 952
652 13.459019515923163 3.726269005747298 65.638906384964045 118 105 78 0.21992412241233303 1 2412 5 2421 3 2107 4 2354 2 767
285 5.4060109953173718 6.4542409823548539 62.480690448023893 26 32 22 0.77212907493650351 5 2545 1 2726 4 2699 2 961
287 6.5010246296516456 9.1605375253075607 62.909674318396185 107 92 61 0.21868076498518793 5 2570 1 2663 3 2341 4 2722
592 2.051356232671329 4.6345423558193488 66.767160334053457 141 130 101 0.49942889717822792 1 2428 5 1306 3 1875 4 1998
289 2.9899290089275037 14.393840917394538 63.870986309203175 155 134 113 0.94435007745530941 5 2588 1 2688 3 2420 4 2802 2 977
291 2.050719240774038 14.488045581891265 63.920388092075882 27 29 22 0.83036530440088896 5 2590 1 2757 4 2803
596 1.8631923932469996 5.0840081373419128 67.322342750468579 47 37 46 0.28800633919297258 1 2439 3 1890 4 1555 5 1319 2 478
293 9.8198036490636635 -0.79792231325528007 64.316307241415444 189 191 187 0.1486641453988396 5 2601 1 2695 3 2375 4 2764 2 919
295 10.461829280344057 -0.40220323440672218 63.617786043791675 180 185 189 0.12476357070018385 5 2603 1 2697 3 2377 4 2767 2 922
600 2.0424864083960101 5.1831669888038601 66.660814652719893 121 124 85 0.42963657202575012 5 1328 3 1899 4 1562 2 484
297 9.7777983753981772 -0.30463096223963637 64.304475725657682 108 111 120 0.43933236073656418 5 2605 1 2698 3 2378 4 2819 2 924
299 8.1250497395484391 0.48382074974117217 65.653259739440983 201 198 191 0.19341059385532067 5 2610 1 2701 3 2383 4 2769
604 13.62916811226267 5.4477666806616174 65.747006861394482 116 57 18 0.40313267494403859 1 1728 5 1837 3 1907 4 2030
301 10.303732935623534 1.4992341283858972 63.827497590827726 145 115 57 0.56776185415769886 5 2615 1 2779 3 2440 4 2824 2 1004
303 5.5443046227931498 3.5488173121208044 62.82841667284714 33 32 37 0.90616541291397168 5 2623 1 2642 4 2778 3 2318
672 4.3594335021432933 9.1968219932560764 62.066319228492773 100 87 61 0.25823573905566799 5 2244 3 2163 4 2409 1 2472
305 13.073095472111538 5.3669129876481003 65.424741157792866 121 68 26 0.24672357643999721 5 2629 1 2717 3 2397 4 2782
307 11.168556439142154 5.8869949355261868 64.747852900696344 115 101 69 0.37644556650547223 5 2631 1 2721 3 2399
676 2.3026340898451796 11.82191324089561 66.088406398869296 35 37 25 1.0753217051693102 5 918 3 2177 4 1666 1 2483
309 10.621054832314295 7.5925358862634971 64.351769472580159 31 36 29 1.1042201486528416 5 2637 1 2731 3 2405 4 2710 2 1022
311 8.4054109358578657 10.306697023988049 63.762451614902844 24 31 13 1.0258186197709005 5 2640 1 2740 3 2409 4 2840 2 1024
680 2.2933994763111123 14.373181125178345 66.345396835903784 133 119 87 0.70873600302547723 1 2497 5 2305 3 2192
313 7.6563196727162639 -0.70821997454210195 66.307784342883537 158 162 171 0.3436081753890276 5 2665 1 2773 2 999
315 9.4552195203544684 -0.54128885513585046 64.679014787370676 166 170 176 0.28259515370777644 5 2667 1 2775 3 2432 4 2816
684 2.1220178596231198 14.417996956645048 63.755303005951141 20 18 34 0.46145706875912962 1 2507 5 2317 3 2199 4 2478 4 2633
317 10.909560936056229 1.9328863778278371 63.534126279296125 165 115 36 0.29126338514959876 5 2671 1 2780 3 2441 2 1005
319 13.089006584848786 4.9694218127397765 65.406332805806244 120 64 26 0.39848188143371921 5 2679 1 2787 3 2449 4 2835 2 1017
752 2.1894356439830891 11.756032737430852 66.511269879387015 40 35 13 0.69161265269678229 1 2833 5 2641 3 2458 4 2841 2 1060
321 7.6873955961890417 6.5351770016859607 63.403478364457214 28 31 27 1.2694238255676993 5 2718 1 2791 4 2872 1 2827
323 11.133291938314374 8.3778469022278159 64.617033628771125 27 31 14 0.97562974820350845 5 2728 1 2857 3 2487 2 1053
756 5.6492181297775854 -2.193596852064283 67.66686158636621 228 201 157 0.79911631698979124 1 2810 5 2701 3 2467 4 2860 2 1037
325 7.3295629479796887 9.0785852557824001 63.327809961860005 105 91 65 0.3349072617708363 5 2732 1 2830
327 8.598308620630629 10.470334775576379 63.683950940959541 105 88 66 0.29106176487591323 5 2741 1 2832 3 2493 4 2882 2 1057
760 13.586103888119421 8.0121961947906364 65.712548322931099 109 96 64 1.2573755561395361 5 2725 3 2485 2 1052
329 9.8257188482981039 12.252888485160236 64.063801936550533 25 34 26 1.592059168997797 5 2753 1 2836 1 2795 4 2844
331 7.3439949809378389 13.166214296059438 63.028792761357494 94 83 63 0.3567925883931472 5 2757 1 2840
764 1.5675430938196846 14.34008190408502 64.518824722768699 135 122 85 1.0190819219274281 1 2866 5 2758 3 2496 4 2893 2 1088
333 10.081447471283427 -1.8254205868589577 63.820497997145459 149 133 100 0.51766002033498082 5 2790 1 2848 3 2522 4 2919 2 1095
335 8.4258353753822917 -0.29655038481596951 65.37117996138555 191 191 202 0.24061339242818094 5 2792 1 2873 3 2525 4 2922 2 1097
704 8.8403189839823995 0.66887894891822497 65.035390895376764 175 175 176 0.43988532401034119 5 2510 3 2309 4 2671 2 857
337 9.1552399417594348 -3.5593413986474456 64.564566727858619 167 140 107 0.90524678197629471 5 2811 1 2891 3 2543 4 2947 2 1118
339 13.201823032398835 2.6412887408415702 65.575454515181846 39 39 32 0.55996202253390293 5 2815 1 2894 3 2546 4 2950 2 1121
708 3.3317085826473556 5.0861477180808476 62.644415394565371 149 75 37 1.2864186677609202 1 2718 5 2201 3 2324 4 2571 2 877
341 3.9143121602452875 6.7721761588542106 62.102317931322091 34 38 23 0.84832660651536396 5 2822 1 2899 4 2955 2 1128
343 10.492294349307096 8.2797579076807324 64.475687807750347 109 95 68 0.48186982012443036 5 2824 1 2881 3 2529 4 2931 2 1104
553 9.4237342800412627 0.050665281089955015 64.634658708108674 153 152 158 0.39355205621525513 1 2011 3 1760 4 1872 2 407
344 7.995770367182204 6.9107025077925943 63.5733119160043 30 33 22 0.77023853284973798 5 2839 1 2920 3 2564 4 2970 2 1141
712 4.1911819419308527 6.4602044030698735 62.198154330684169 20 30 10 0.79196824049217884 1 2657 3 2336 4 2702 2 887
345 10.15254923189865 7.638255230977653 64.517561122935518 111 95 69 0.60000294336894378 5 2841 1 2921 3 2565 4 2972 2 1143
346 11.260896739737921 8.009851632108429 64.427271059585351 30 36 22 0.43061261612419255 5 2842 1 2922 3 2566 4 2973 2 1144
347 9.7922920330024912 8.767812775489066 64.13099665936376 28 36 19 0.77049648253209047 5 2843 1 2923 4 2974 2 1145
716 2.2911229128409727 12.17577323673318 66.096031539143496 36 69 60 0.10356229877624551 1 2745 3 2353 4 2735 2 898
349 7.9554609413258079 2.7099430107194546 63.677906637527535 34 37 30 1.6347868023882923 5 2850 1 2914 4 2979 2 1153
350 9.5697451993656557 6.5128430857191058 63.864534883863683 34 36 31 0.90140609528011806 5 2853 1 2940 3 2577 4 2984 2 1158
351 4.8530697763249471 6.598418105434197 62.442455648773986 105 91 64 1.0064111131081168 5 2854 1 2918 3 2578 4 2987 2 1159
656 3.2165519217384029 3.9616148472560959 62.988464499068144 159 138 109 0.56444412551883993 1 2102 3 2113 4 1978 2 777
353 6.9219295285797156 6.6860806288671597 63.178842594036055 110 94 69 1.0082742706634158 5 2856 1 2941 3 2580 4 2985 2 1161
355 9.1119814845544926 7.737962725633853 63.810920927385951 108 92 70 0.99420013039909017 5 2860 1 2943 3 2584 4 2990 2 1166
357 6.9557986784224406 8.691362886859805 63.143501123532474 105 93 68 0.75168872244596208 5 2862 1 2945 3 2585 4 2991 2 1167
660 13.455934019963859 5.188512334192132 65.605194792692203 119 105 72 0.43208115355555315 1 2437 5 2196 3 2122 4 2376 2 786
359 6.9587184201426693 11.007261004147473 63.208748223914249 103 88 68 0.59731066186146353 5 2865 1 2947 3 2588 4 2994 2 1169
361 9.1646726980702837 12.544877862247771 63.435550260408561 98 84 58 0.91882444893578208 5 2868 1 2948 3 2590 4 2997 2 1170
664 13.704017780289087 5.9074181113159128 65.71741775294592 116 98 71 0.41595655886000121 1 2174 5 2209 3 2130
363 7.0053617383399844 12.887898101380374 63.139822026600861 98 83 62 0.97824688370914958 5 2870 1 2951 3 2593 4 2999 2 1173
365 9.9772957823727424 2.6674162426137058 64.134658038489079 25 28 17 0.4602440097527275 5 2885 1 2959 3 2603 4 3012 2 1184
668 1.6178239389625322 8.7499516934827248 68.383945751961633 118 105 70 0.65180925064573481 1 2468 5 1906 3 2149
367 4.253909573810664 9.827366768540692 62.108491940345345 25 30 14 0.40774096320062181 5 2893 1 2962 3 2608 4 3017 2 1188
369 11.580076004528218 10.139474942584796 64.686297592770956 107 91 69 1.2870108819683839 5 2906 1 2973 3 2623 4 3030 2 1200
736 8.7373711111337808 14.156706857018824 63.546378109679523 89 75 49 0.91100026644192855 1 2755 3 2417 4 2799
371 8.6276933971501801 0.17221606413939627 63.421927278555344 191 197 187 0.18234221827682001 5 2915 1 2976
373 10.453316448206909 -3.0301096424810474 63.475302599315008 137 94 16 0.96691519864992481 1 1503 3 67 4 796
740 13.067607731827954 -3.7653981039806252 66.12821753799463 149 136 104 0.058953548916675855 1 2767 3 2428
375 11.28146604359104 -2.1209943161030038 64.059539842120756 128 86 37 1.1855265339026906 1 835 3 82 4 51 4 1371 5 1601 2 360
744 7.7738198748578995 -0.37104458093593901 66.171520880994066 119 139 133 0.22033157241110668 5 2668 3 2434 4 2817 2 1002
379 11.037905209616268 -1.541768369673908 63.733064624130165 134 92 22 0.41860895381303614 1 124 3 133 2 9
381 9.7883725230606338 -0.53962118260374459 64.226729903164482 153 153 153 0.13534281087213496 1 146 5 85 3 164
748 3.6887541399328212 2.3617727841064782 62.044200942831267 27 32 12 0.55201077315691971 1 2782 5 2673 3 2445 4 2826 2 1010
383 9.5494025772043933 -0.39713788294635094 64.464159731723555 100 100 138 0.55206658936940667 1 912 3 178 2 133
384 7.6956632986683911 -0.32620717217834871 66.192487983738758 153 168 163 0.44674723748612027 5 96 3 186 2 137
529 2.3495299918979651 7.0412676143435302 66.084896103981748 19 11 35 1.0630149765074535 1 1204 3 1559 4 2061 2 678
386 9.4314025889412356 -0.27729543385234512 64.602138082954284 180 189 186 0.51867363921393739 5 106 3 193 2 29
388 10.051823820465525 0.13958171767159883 64.011069629034623 177 189 187 0.33847523742132096 1 198 3 225 2 43
533 8.6586475630853457 11.482741436278587 68.580323431467434 0 0 0 0.60907723880235709 1 1826 5 1421
390 10.329917556470637 0.67817992529154902 63.744738123224039 157 157 151 0.41699493536541293 5 148 3 258 2 154
392 10.295518802913685 1.1570009118081892 63.629978403839118 173 190 182 0.38400758024737208 1 256 3 293 4 213
537 2.5930572213302008 14.389139613574105 64.915535136911998 138 131 96 0.1790282758838716 1 1875 5 1484 3 1650 4 1706
394 10.341156237400016 1.3513228539466167 63.669556834955785 87 90 103 0.12976016634676216 1 262 3 297 4 219
396 6.3323590164141903 2.1512574358323597 67.447094718107351 139 118 71 0.19080226001399439 1 282 3 325 4 247
541 -2.2387963467076437 -17.580357167736608 79.944819652478131 100 104 105 0.88252499747199575 1 1464 3 1698 4 2270
398 1.7222938944288053 3.6180556403230844 67.697362999512052 63 48 56 0.40628793861822932 1 363 3 386 4 309 2 178
399 13.391860719473135 4.8064918937497216 65.614065014778745 124 105 73 0.47894205657798655 5 266 3 428 4 357
400 2.3980965773371539 5.1623055721749056 65.565894276681675 117 121 88 0.58953389746086882 1 434 3 453 2 82
